151448.12900000 189899.95500000 769.90590000 174 174 174
151448.13430000 189899.95680000 769.91210000 182 182 182
151448.13130000 189899.96330000 769.90510000 170 170 170
151448.13720000 189899.96530000 769.91130000 179 179 179
151448.13200000 189899.98480000 769.90400000 162 162 162
151448.13280000 189899.97110000 769.90460000 173 173 173
151448.13970000 189899.97350000 769.91050000 183 183 183
151448.14190000 189899.98110000 769.90980000 184 184 184
151448.13260000 189899.97790000 769.90420000 164 164 164
151448.13580000 189899.95730000 769.91890000 181 181 181
151448.13460000 189899.94960000 769.92650000 182 182 182
151448.13710000 189899.95770000 769.92580000 182 182 182
151448.13910000 189899.96600000 769.91800000 182 182 182
151448.14050000 189899.96640000 769.92490000 183 183 183
151448.14280000 189899.97450000 769.92420000 185 185 185
151448.14140000 189899.97400000 769.91730000 184 184 184
151448.13640000 189899.95010000 769.93330000 187 187 187
151448.13870000 189899.95830000 769.93260000 182 182 182
151448.13770000 189899.95060000 769.94010000 184 184 184
151448.14070000 189899.95900000 769.93930000 179 179 179
151448.14170000 189899.96680000 769.93180000 183 183 183
151448.14440000 189899.97500000 769.93100000 185 185 185
151448.14370000 189899.96750000 769.93850000 182 182 182
151448.14520000 189899.96800000 769.94530000 182 182 182
151448.14620000 189899.97570000 769.93770000 182 182 182
151448.14770000 189899.97620000 769.94460000 181 181 181
151448.13260000 189899.99240000 769.90350000 157 157 157
151448.14420000 189899.98900000 769.90910000 181 181 181
151448.14740000 189899.99760000 769.90830000 179 179 179
151448.14980000 189900.00620000 769.90750000 178 178 178
151448.15220000 189900.01440000 769.90670000 180 180 180
151448.15420000 189900.02200000 769.90610000 177 177 177
151448.15640000 189900.03010000 769.90530000 177 177 177
151448.15990000 189900.03130000 769.91190000 184 184 184
151448.15720000 189900.03830000 769.90480000 176 176 176
151448.16330000 189900.04050000 769.91100000 187 187 187
151448.14590000 189899.98250000 769.92330000 185 185 185
151448.14820000 189899.99030000 769.92260000 178 178 178
151448.15150000 189899.99900000 769.92170000 184 184 184
151448.15270000 189899.99940000 769.92860000 184 184 184
151448.15610000 189900.00830000 769.92770000 184 184 184
151448.14380000 189899.98180000 769.91660000 188 188 188
151448.14600000 189899.98960000 769.91590000 179 179 179
151448.14940000 189899.99830000 769.91500000 184 184 184
151448.15230000 189900.00700000 769.91420000 181 181 181
151448.15420000 189900.00770000 769.92090000 179 179 179
151448.14750000 189899.98310000 769.93020000 186 186 186
151448.14870000 189899.98340000 769.93700000 183 183 183
151448.14970000 189899.99090000 769.92950000 182 182 182
151448.15090000 189899.99130000 769.93630000 183 183 183
151448.15020000 189899.98400000 769.94380000 182 182 182
151448.15290000 189899.99190000 769.94310000 180 180 180
151448.15380000 189899.99970000 769.93550000 183 183 183
151448.15710000 189900.00860000 769.93460000 185 185 185
151448.15550000 189900.00030000 769.94230000 182 182 182
151448.15860000 189900.00910000 769.94150000 182 182 182
151448.15870000 189900.01660000 769.92700000 179 179 179
151448.16060000 189900.02420000 769.92630000 187 187 187
151448.15510000 189900.01540000 769.91340000 181 181 181
151448.15740000 189900.01610000 769.92010000 179 179 179
151448.15700000 189900.02300000 769.91270000 183 183 183
151448.15860000 189900.02360000 769.91950000 187 187 187
151448.16160000 189900.03190000 769.91870000 184 184 184
151448.16480000 189900.04100000 769.91780000 188 188 188
151448.16340000 189900.03260000 769.92550000 183 183 183
151448.16650000 189900.04160000 769.92460000 185 185 185
151448.15980000 189900.01700000 769.93380000 180 180 180
151448.16240000 189900.02490000 769.93310000 181 181 181
151448.16130000 189900.01750000 769.94070000 182 182 182
151448.16390000 189900.02540000 769.94000000 179 179 179
151448.16500000 189900.03310000 769.93240000 181 181 181
151448.16790000 189900.04210000 769.93150000 182 182 182
151448.16670000 189900.03370000 769.93920000 179 179 179
151448.09730000 189899.96560000 769.90280000 138 138 138
151448.09500000 189899.97180000 769.90280000 134 134 134
151448.09590000 189899.97950000 769.90230000 134 134 134
151448.09180000 189899.98580000 769.90260000 127 127 127
151448.09140000 189899.99290000 769.90230000 131 131 131
151448.08560000 189899.99780000 769.90290000 133 133 133
151448.13410000 189900.00060000 769.90290000 153 153 153
151448.13320000 189900.00770000 769.90270000 155 155 155
151448.13130000 189900.01400000 769.90260000 154 154 154
151448.12980000 189900.02070000 769.90250000 156 156 156
151448.12760000 189900.02780000 769.90240000 153 153 153
151448.12680000 189900.03550000 769.90210000 160 160 160
151448.12530000 189900.04220000 769.90200000 160 160 160
151448.12380000 189900.04830000 769.90190000 156 156 156
151448.12130000 189900.05480000 769.90190000 153 153 153
151448.08390000 189900.00450000 769.90280000 135 135 135
151448.08070000 189900.01120000 769.90290000 136 136 136
151448.07960000 189900.01870000 769.90260000 142 142 142
151448.07950000 189900.02580000 769.90230000 150 150 150
151448.07700000 189900.03160000 769.90240000 148 148 148
151448.13920000 189899.95110000 769.94700000 183 183 183
151448.14230000 189899.95950000 769.94610000 178 178 178
151448.14380000 189899.96000000 769.95300000 179 179 179
151448.14090000 189899.95160000 769.95370000 187 187 187
151448.14240000 189899.95210000 769.96050000 186 186 186
151448.14540000 189899.96050000 769.95970000 179 179 179
151448.14640000 189899.96840000 769.95220000 182 182 182