151437.00300000 189906.05110000 769.25290000 137 137 137
151437.01770000 189906.05940000 769.25170000 121 121 121
151437.01020000 189906.05520000 769.25230000 124 124 124
151436.99590000 189906.04770000 769.25330000 140 140 140
151436.98960000 189906.03660000 769.25530000 131 131 131
151437.00110000 189906.01660000 769.25150000 127 127 127
151436.99990000 189906.07010000 769.25720000 142 142 142
151436.99390000 189906.06000000 769.25890000 144 144 144
151436.99360000 189906.06190000 769.26670000 142 142 142
151436.99370000 189906.06200000 769.27480000 137 137 137
151436.99390000 189906.06140000 769.28300000 137 137 137
151436.98810000 189906.04550000 769.26160000 135 135 135
151436.98810000 189906.04610000 769.26960000 142 142 142
151436.98360000 189906.02330000 769.25780000 133 133 133
151436.98280000 189906.02870000 769.26480000 135 135 135
151436.98830000 189906.04550000 769.27780000 146 146 146
151436.98840000 189906.04510000 769.28600000 143 143 143
151436.98280000 189906.02880000 769.27280000 137 137 137
151436.98270000 189906.02960000 769.28080000 138 138 138
151436.98680000 189906.00450000 769.25350000 126 126 126
151436.99390000 189906.01080000 769.25250000 124 124 124
151436.98050000 189905.99510000 769.25520000 130 130 130
151436.97860000 189905.96160000 769.25370000 123 123 123
151436.97780000 189906.01070000 769.26010000 136 136 136
151436.97730000 189906.01460000 769.26740000 136 136 136
151436.97260000 189905.99740000 769.26260000 135 135 135
151436.97230000 189905.99950000 769.27020000 138 138 138
151436.97730000 189906.01500000 769.27540000 139 139 139
151436.97750000 189906.01390000 769.28360000 141 141 141
151436.97230000 189905.99980000 769.27820000 140 140 140
151436.97220000 189906.00060000 769.28610000 140 140 140
151436.97450000 189905.98610000 769.25680000 130 130 130
151436.96740000 189905.98180000 769.26550000 127 127 127
151436.96310000 189905.96010000 769.26160000 139 139 139
151436.96200000 189905.96700000 769.26820000 141 141 141
151436.96930000 189905.97030000 769.25980000 119 119 119
151436.96690000 189905.98470000 769.27300000 137 137 137
151436.96710000 189905.98400000 769.28110000 140 140 140
151436.96190000 189905.96820000 769.27600000 142 142 142
151436.96200000 189905.96780000 769.28410000 139 139 139
151436.95630000 189905.95360000 769.27070000 146 146 146
151436.95690000 189905.94940000 769.26350000 142 142 142
151436.95150000 189905.93480000 769.26620000 148 148 148
151436.96570000 189905.94500000 769.25660000 137 137 137
151436.97250000 189905.95110000 769.25560000 126 126 126
151436.95940000 189905.93500000 769.25840000 140 140 140
151436.95640000 189905.95330000 769.27880000 146 146 146
151436.95650000 189905.95340000 769.28680000 143 143 143
151436.95100000 189905.93810000 769.27360000 145 145 145
151436.95100000 189905.93840000 769.28150000 148 148 148
151436.94710000 189905.91630000 769.26180000 137 137 137
151436.94610000 189905.92240000 769.26850000 137 137 137
151436.94130000 189905.90340000 769.26410000 141 141 141
151436.95350000 189905.92310000 769.26060000 156 156 156
151436.96320000 189905.91260000 769.25500000 135 135 135
151436.94980000 189905.90050000 769.25700000 131 131 131
151436.95640000 189905.90610000 769.25610000 145 145 145
151436.94610000 189905.92280000 769.27650000 144 144 144
151436.94620000 189905.92260000 769.28450000 149 149 149
151436.94070000 189905.90710000 769.27140000 140 140 140
151436.94090000 189905.90690000 769.28740000 149 149 149
151436.94080000 189905.90680000 769.27950000 147 147 147
151437.02520000 189906.06370000 769.25100000 121 121 121
151437.00840000 189906.01840000 769.25140000 124 124 124
151437.01600000 189906.02010000 769.25120000 122 122 122
151437.03200000 189906.02210000 769.25130000 118 118 118
151437.03950000 189906.02350000 769.25120000 121 121 121
151437.02400000 189906.02150000 769.25120000 120 120 120
151437.07130000 189906.02360000 769.25210000 158 158 158
151437.04690000 189906.02500000 769.25120000 121 121 121
151437.05530000 189906.02160000 769.25210000 137 137 137
151437.06350000 189906.02180000 769.25220000 149 149 149
151437.07890000 189906.02410000 769.25220000 170 170 170
151437.09380000 189906.02920000 769.25160000 174 174 174
151437.08640000 189906.02560000 769.25210000 169 169 169
151437.10960000 189906.03010000 769.25180000 194 194 194
151437.10230000 189906.02700000 769.25220000 183 183 183
151437.09340000 189905.98130000 769.25300000 214 214 214
151437.11670000 189906.03320000 769.25140000 203 203 203
151437.12520000 189906.03030000 769.25220000 208 208 208
151437.10080000 189905.98470000 769.25250000 212 212 212
151437.10920000 189905.98300000 769.25310000 208 208 208
151437.12340000 189905.99000000 769.25210000 215 215 215
151437.11660000 189905.98540000 769.25280000 213 213 213
151437.01540000 189905.97630000 769.25190000 118 118 118
151437.02330000 189905.97640000 769.25200000 124 124 124
151436.99250000 189905.97060000 769.25230000 122 122 122
151437.00070000 189905.97050000 769.25260000 119 119 119
151436.98560000 189905.96480000 769.25330000 121 121 121
151437.00820000 189905.97420000 769.25210000 119 119 119
151437.03110000 189905.97830000 769.25190000 122 122 122
151437.03930000 189905.97810000 769.25220000 121 121 121
151437.04710000 189905.97660000 769.25270000 135 135 135
151437.05460000 189905.97710000 769.25280000 154 154 154
151437.03830000 189905.93440000 769.25280000 142 142 142
151436.97720000 189905.92360000 769.25320000 128 128 128
151436.98460000 189905.92640000 769.25290000 119 119 119
151436.99920000 189905.93080000 769.25240000 125 125 125
151436.99190000 189905.92750000 769.25280000 120 120 120
151436.97010000 189905.91910000 769.25390000 128 128 128
